# 3D point list with one line of data per point:
#   POINT3D_ID, X, Y, Z, R, G, B, ERROR, TRACK[] as (IMAGE_ID, POINT2D_IDX)
# Number of points: 358, mean track length: 7.2234420906138856
12120 7.7119811257030086 -0.95140465576320132 51.139099718552878 113 97 82 0.60173075316469338 1 760 13 5536 15 5295 19 6218 7 6754
12121 2.6779582731625955 -0.37558712781821857 42.261916063991819 103 93 83 0.27102872646943388 12 8123 19 6285 9 518 11 4105
12123 7.1565036336087315 0.33333748814516123 45.255611728271774 190 187 181 1.1953824953190664 12 1108 19 6406 1 1109 3 6529 7 1064
12124 6.6866947007935273 0.55339173765268312 42.703275876272023 181 175 163 1.3862537939636932 1 5834 13 5791 17 1197 19 6471 3 1216 3 6589 5 6484 7 6969 9 710 11 4218
12125 2.3664783896082464 0.60882276737755214 39.705193901924659 99 85 76 0.74643981499095791 8 7040 19 6497 5 6517 7 6998 11 905
12126 -8.5487579355743346 0.60666456373106059 32.861510909494058 90 73 66 0.6537332405296159 1 5869 13 5835 19 6540 15 5612 7 7040 9 767
12127 -6.4442053317248211 0.71387198484065917 34.315726954772039 69 46 40 0.49132965988513339 13 5846 17 6209 19 6547
12129 -2.5279195746407681 1.0649119706059054 34.969244907809554 141 122 108 0.8560120800899732 13 1502 15 1529 19 6627 1 1416 3 1511 5 1504 9 859 11 1043
12130 -2.744701916103383 1.2245160957255288 35.363976103371677 133 114 99 0.88902859282014024 1 5987 15 5716 19 6652 3 6752 5 6685 9 908
12132 -8.4875233020992784 1.1912590706195609 32.68245307746394 35 25 21 0.60356030598599475 4 7481 13 5964 19 6690 7 7179 8 7116 9 935
12133 1.7241148008179257 1.6425562927352779 37.898187330676535 119 103 88 0.95009334889318064 1 1661 15 5740 19 6702 3 1762 5 1713 7 7190 11 1204
12134 -1.9298779129726995 1.5486641615100467 31.95888177398588 139 118 101 1.2817957379160703 18 5819 19 6724 3 1840
12135 0.6218316006587723 1.9929140577555033 37.969890584183872 42 37 35 1.2968274043765362 13 1865 19 6741 17 6409 3 6864 5 6776 7 7250 9 1042 15 5796
12139 -6.5850304732228828 1.8945662093147126 33.752212530735243 69 53 40 0.90340491718323157 1 6125 15 5881 19 6784 7 7303
12140 3.5764512454854311 2.1375410616434651 34.860777779016402 145 131 118 0.37193539981109852 1 6164 15 5864 19 6802
12141 14.204427951809562 2.9856151544943472 47.040589404283899 104 92 87 0.66604816767608344 1 6183 12 6453 15 5829 19 6803 3 6927 7 7301
12142 13.65864943712867 3.0333940763435399 42.844582529229115 115 107 104 2.4147646358201253 1 2142 7 7373 15 5901
12143 -7.2385556116810372 2.5014435114358933 33.630634095891189 103 88 81 0.42916231798632731 1 6284 19 6971 7 7478
12144 -3.0260994855768386 2.4582075222024633 30.900861388914848 94 72 58 0.6790669688699692 13 6326 17 6670 19 7003
12145 -5.8102292109496743 2.2707313717528961 28.897528917585628 0 0 0 0.65967114690691497 12 6576 17 6669
12147 -6.3583561514573859 2.925168635600929 33.926516799549084 94 79 72 0.74963468921385989 1 6418 19 7100 3 7210 5 7128 7 7620
12148 -5.9118412715163329 2.9113907133125752 33.681414008771 95 80 73 1.977204154085356 1 6420 19 7101 16 6002 7 7621
12149 6.1648750302933628 3.4311202666489953 36.235288070221422 122 99 91 1.0336128614591364 13 2710 17 2679 19 7141 3 7255 5 7147
12150 -3.2252944600591618 2.6740517926694096 29.147096357423344 71 57 46 2.2768960614634022 13 8364 15 8079 19 7144 3 2747 9 4593 7 10255
12151 12.914036584182067 3.9533555455556812 40.813493845214509 64 53 49 1.926240549212008 1 2682 19 7151 3 2795
12152 -5.8939946632722888 3.1756509939416793 34.50689244628628 29 18 16 0.66661229026817914 13 2648 19 7161 7 2719
12153 6.1513759094117022 3.477677265745569 36.072486390804208 74 54 45 0.6873474541332133 13 6508 15 6182 19 7165
12154 -0.11775936940193214 3.1962120626708312 32.612908023394027 64 47 31 0.66663139005550931 13 6514 17 6851 19 7199 3 2854
12155 -1.9749227986100242 2.90790174572928 28.504375147766154 73 73 71 0.66675767557068033 13 6543 15 6285 17 6889 19 7243 3 7323 5 7221
12156 -1.8384635962764071 3.2437508169661902 28.623731211294693 29 29 27 1.007620019561539 13 6641 19 7349 17 3032 3 7440
12157 -0.57712864027639466 3.2988095590547264 28.315628442819747 1 3 0 0.61621327904856626 13 6672 15 6425 17 3086 19 7375 3 3203 5 7364 7 3155 11 2078
12158 -2.499372879392725 3.3543974967393457 28.290914955850798 72 77 81 1.2150294991653057 13 8504 17 8996 19 7405
12159 1.4019152449183654 3.7251368409629486 30.107304175439388 0 1 3 0.42292110565771673 13 3200 17 7100 19 7432
12160 -5.3397228725710892 3.1778709849009199 26.031301460297186 154 154 152 0.42016069546625462 13 6733 15 6527 17 7103 19 7442 3 7560
12161 -3.423046710345802 3.4407437228780013 27.709063718671239 1 4 4 0.25788615703885182 13 6742 15 6525 19 7447
12162 -4.8183089459904496 3.5973012439850787 28.245544234787943 82 102 101 0.53725323086266152 13 6757 15 6553 17 7144 19 7477
12163 -2.6097817617117172 3.6568351701360395 28.269087302037185 0 1 2 0.80972782702589663 13 6765 19 7485 5 3367
12164 -0.70482435171376112 3.8618741054062702 28.584419680539785 127 132 136 0.26760036832651196 13 6799 15 6581 17 7189 19 7515 3 7638
12165 -4.9514360750891946 3.3327765560343963 24.16540508248201 29 30 25 0.77019937894580703 15 6671 17 7231 19 7568 13 8595 3 7689 7 8144
12166 -3.1395286787646559 3.8656602562964486 27.724506826117494 0 1 4 0.20714967668436896 13 6843 15 6653 19 7575 3 7695 5 7594
12167 -1.5538737772960818 4.1145091605459791 28.541080597289685 113 109 105 0.91159762144336065 13 8625 17 7275 19 7624
12169 -0.4215211985074836 4.256179100302691 27.116682722836053 34 40 15 0.71855107471216406 15 6823 17 7432 19 7773
12170 -6.0448455236026506 3.8233478037181077 24.382887705352807 89 96 106 0.86771517366260154 13 7026 15 4001 19 7796
12171 -4.7635095173698936 4.0432165924713868 24.574471767802837 44 37 21 0.82751450673359717 15 4090 19 7864 13 4017 3 7967 17 7532 7 8427
12172 -4.7454129323153023 4.0773164684697871 24.387826291990535 68 59 44 0.56688600474816453 13 4067 15 4142 19 7897 3 4309 5 4191
12173 -2.5801937860341249 4.260414139830722 25.270229636029168 155 143 127 0.39094328188733118 15 6922 17 7562 19 7898 3 7997 5 7888
12174 -3.9273219079112729 4.2277328817142061 24.306537732910698 111 101 90 0.96335168195143439 15 4230 17 7602 19 7958 5 4321
12175 -0.42543160769707766 4.1962716636669155 23.672764808998171 124 121 104 1.2430745982786708 13 7198 15 6967 19 7970 3 8078
12176 -4.344682890266176 4.1527168069992992 23.73508033700875 122 112 100 1.2618074718126082 15 6994 19 7975 3 4497 5 7961
12177 -4.344682890266176 4.1527168069992992 23.73508033700875 122 112 100 1.2618074718126082 15 6993 19 7976 3 4498 5 7962
12178 -5.681323940337375 4.2248561233350257 23.336513771984205 48 46 31 1.1189855186348758 13 8802 15 7054 19 8038
12179 -5.5914142453905651 4.3039871781269596 23.716443950385667 26 25 7 1.9024140547563637 15 8530 19 8040 3 8144 1 7269 12 7414
12180 -4.6230722477743669 4.6803073420187937 24.907171583857505 123 117 101 1.1215392635599255 13 8815 15 7089 19 8093
12181 -6.1064755198811858 -5.328200649220654 43.213955263988368 208 213 217 1.2516683279836538 1 9234 15 7363 19 8577 5 8692 7 9529
12183 -2.8066839716468599 -4.263776416044478 36.222898376735372 110 94 79 1.1086888928703711 14 7857 19 8586 5 8697 9 3802
12184 -1.9669156666611125 -3.4982401493471773 35.646949529430714 129 113 98 0.6137739231229199 13 9066 15 7400 17 8198 19 8606 3 8812 5 10278 7 9552 9 5986
12185 10.710316355309802 -2.8681809393910873 44.781094876716764 204 209 213 1.3340636457564479 1 7854 19 8655 15 7433 7 11325 11 5807
12186 2.059285228296897 -2.9194434670610105 43.897192930557637 205 212 218 0.78434850257573818 1 7848 13 7729 15 8761 19 8656 17 9647 3 8856 5 10302 7 9595 9 6015 11 3913
12187 7.9187498624739048 -2.9649485457949099 51.968470280057659 131 115 102 0.70213801137125276 1 7863 17 8264 19 8663 3 8869 5 8773
12188 6.474031910582287 -2.513685010094187 51.32612109382044 203 211 214 0.37041115180447037 1 7888 13 7753 15 7458 19 8677
12189 2.6386935384057328 -2.1335980988790757 42.604179289554203 126 131 137 0.95632604482815475 1 7885 13 7752 15 7461 19 8678 3 8885 7 9619 9 3900 11 5827
12190 2.9221391277259081 -2.1597243511464872 42.785025928604846 87 91 94 2.0290273376250729 1 7886 4 7244 3 6186 11 3949
12191 -2.2503412428451548 -1.410116373131127 35.258065700697188 141 128 112 0.36547749650058942 8 7890 10 8807 19 8704
12192 -2.2556345739166472 -1.4068501400392599 35.308205366757456 141 128 112 0.74663344345879568 1 9314 13 9142 19 8705 5 10334 7 11364 9 6051 11 5840
12193 -6.8453118826981312 -1.4851051596272133 42.113632363765198 156 139 123 0.761014936675247 14 7919 16 8098 19 8722 7 9676 9 3954
12195 7.7346017578050423 -0.77148944723922708 51.217931219681176 80 60 49 0.64461016933019577 1 800 13 5566 15 7555 19 8777 15 816 3 6369 5 806 7 6773 7 9713 11 4073
12196 3.2542572506666572 -0.57689175925070124 42.563985864502236 130 118 106 1.2651069325703024 1 7984 19 8787 7 9726 11 4079
12198 2.5435458310791192 0.33379470134536687 39.837568684126666 62 72 107 0.30587890835597553 1 8090 13 7954 15 7656 17 8452 19 8868 3 9105 9 4122 11 4190 5 8969 7 9819 17 8451 15 7657
12199 -6.6563026929551761 0.71689745645696779 34.134318828568354 101 78 70 1.1183910635141943 1 8130 13 8004 19 8922 3 9159 7 7058
12200 0.61406613739880278 1.0330328335569585 38.122883483784157 13 8 12 0.47959952163609243 1 8147 13 8026 15 7722 19 8933 11 6045
12201 -6.6464014493243768 0.85318969784218968 33.271988068450753 35 17 15 0.18236793794081643 13 8018 15 7745 19 8939 3 9187
12202 -0.039109106876134163 1.1368878774795868 36.250374934327411 178 173 155 1.7359953330801492 13 8051 19 8951 15 5678 3 9201 5 9054 9 4221
12204 -6.5838772154333283 1.8898588393878322 33.751891917460128 69 52 40 1.2187636547609122 1 8274 19 9075
12205 -5.6889026878356619 2.0561732612466841 34.317604901993192 113 95 83 0.82272287991557425 2 9059 19 9091 7 10069
12206 13.448437655869737 3.2541297805696199 47.06214851697974 22 12 13 0.36026638275945239 1 8333 13 8222 19 9107 3 9375 5 9212 7 10082 9 4449
12207 13.380321294062878 3.2993112168855605 47.271617317162935 85 70 65 1.8523714026343567 1 8331 13 8220 15 7907 17 8717 19 9110 3 9376 5 9217 7 10086 9 4454
12209 -3.2252389168088591 2.0370971768093349 30.905812085598448 105 89 76 2.2880701761164226 14 8147 16 8990 17 8710 19 9115
12210 13.830344711029296 3.3111614900784181 46.673955645896335 72 62 53 1.3409773412820662 1 9591 15 9042 19 9117 3 9381
12211 -7.981845422457722 2.1301900595329544 32.973003678121806 76 86 92 1.4847210395615609 13 8200 15 7947 19 9118 1 6199 3 10673
12212 -0.69582793368011675 2.647839102342243 35.844457143949619 132 114 100 1.0075967890137596 13 8255 15 7966 17 8739 19 9154 3 9406
12213 -8.2473307252205483 2.3535916800782242 33.071761384596719 49 36 29 1.22940967890251 13 8241 19 9157 15 7983 3 9408 5 9275 9 4472
12214 -5.5705036148295353 2.9241889099742151 39.788329988397628 85 64 51 1.6987595504830555 1 8359 15 7974 17 8743 19 9167 3 9423 5 9272 7 10149
12215 -3.2565649043117273 2.4524831329840824 30.85904280515236 14 14 17 0.30659868048860561 13 6325 15 6068 19 9190 17 6667 7 7501
12216 -5.5879862064909194 3.1628206954882625 39.853098111577317 81 60 49 1.1063935460323964 1 8399 19 9192
12217 0.64941661303192677 2.9228584731057485 32.435574645924063 87 68 53 0.22446093559667402 1 8449 19 9231 13 8344 5 10649
12218 1.6941765169449197 2.8620911728027054 29.487657184438657 4 9 3 0.85556305832520274 13 9487 15 8098 17 8886 19 9287 3 9531
12219 -3.1122818617343917 3.0416533441495073 29.215834585202629 18 29 33 0.72115336731600521 17 10054 18 7888 19 9329 3 9580
12220 7.6777847175490797 3.7396502390601687 33.783758491656215 17 24 16 1.0500884831235142 13 9539 15 8150 19 9350
12221 -3.4898921473083444 3.3148220431227347 27.835031458961133 84 84 83 1.7902352935798576 1 8613 13 8511 15 8238 19 9423
12222 -5.4100978850623269 2.9542871581984134 24.421428885970695 22 19 15 0.54968569109032306 15 6523 17 7096 19 9442 13 6724 5 7448
12223 -2.6239224629872302 3.7400919233606542 28.286665583453825 106 110 111 0.90918671844616894 12 9668 15 8278 17 9061 19 9470 3 9753 5 9588 7 10487
12224 -0.89124058870916656 3.9094702144418134 28.842777182364664 51 48 58 0.52518477235566297 13 8581 15 8288 17 9072 19 9479 3 9768
12225 -2.1313229861885064 3.8129390773875595 28.083352928303373 73 72 68 0.77169375486662428 13 8580 15 8303 17 9079 19 9481 3 9774 5 9610
12226 -3.6871562131454745 4.0849414237271482 27.691105791485388 5 2 9 0.12963881369869321 13 8646 15 8353 17 9137 19 9548 3 9852 5 9655
12227 -0.93787316002828369 4.0986433716427229 27.365199450766699 73 41 46 0.64272571692188329 15 8354 17 9145 19 9551 13 8663 1 8758 3 9863 5 7685
12228 -4.130315440366104 4.1308763745447807 26.933426476185929 70 52 46 0.33022386411281596 15 8398 17 9174 19 9589
12229 -4.4298911283704818 4.0986694038820319 26.691637779484687 53 42 37 0.80205347090182355 13 7000 17 9178 19 9592 3 9910 5 9697 7 10607
12230 -5.4733300219251371 3.8793966430579547 23.96628853253986 66 60 48 0.97855530042732497 13 8719 15 8444 19 9627 3 9952 5 9736 7 10647
12231 -2.331487539272604 4.2343771016630161 25.674494577820866 141 129 116 0.4221449990554767 1 8829 19 9637 3 9959
12232 -1.8943427584938217 4.4585079471413103 25.022511975651131 100 93 72 1.7572037741749416 1 8892 18 8206 19 9707 13 9789 3 10026 5 7972
12234 7.1790349951523371 -5.4337122224664292 52.174863336637678 210 218 221 1.0732147228506854 1 9247 19 10060 15 7372 17 8188 3 10361 7 9541 9 3815 11 3846
12235 2.6096230831761371 -3.2343971311260877 43.623560178289601 162 152 146 0.39648214512160534 1 9272 13 9095 15 8752 19 10080 3 10385 5 10294 7 11318 9 6005 11 5802
12236 3.8708391283987678 -0.96023417996999383 43.341949245436822 91 84 76 0.85960570704228323 1 7967 19 10155 12 8101 5 10366
12237 -7.1194149280349084 0.32794402951827739 42.446705519982025 147 128 114 1.1969733485759018 1 10299 12 10082 14 8692 19 10212 3 10523 5 10439 7 11466 9 6176
12238 -8.7456311920386351 0.85925953373525754 32.421138156319508 7 2 2 0.22171396763087803 13 9251 15 8931 19 10248
12239 -7.6850270699392027 0.93928322203269343 33.071413667773356 6 0 0 0.48510077948406627 1 9444 13 9260 17 9809 19 10259 15 8940 3 10553 7 11504 9 6221
12240 -7.2992218105337461 0.9734085619202183 33.352339131444211 4 0 0 0.31537698392940205 13 9266 17 9819 19 10264 9 6229
12241 -0.98671867999773943 1.8968825268890674 37.278496347862117 45 41 38 0.83435661024642915 13 9316 15 8987 17 9873 19 10322 5 10529 7 11555 9 6288
12242 11.767052721551044 2.3874309865209518 43.702183546988309 124 107 97 2.0400359755383666 1 8271 19 10324 7 10015 9 6297
12243 -3.1699334529344858 1.9050860726960925 35.638269096811193 67 49 39 2.371907963124376 13 8154 15 7874 19 10327 3 10620 1 8265
12244 20.142516744282798 3.3763166137611305 56.340390568634 123 111 111 0.76091704091813206 1 9533 12 8347 13 9343 17 9896 19 10332 14 7153 3 10627
12246 -5.9623500731314749 2.8454821901447596 33.940288260854182 44 34 32 1.2607677452413257 1 9627 13 9433 19 10456 3 10767 5 10644 7 11685 9 6406
12247 13.379252875000338 3.7710357904301732 41.369021961261481 113 102 96 0.98286157366084348 1 10488 15 9860 19 10458 17 10818 3 11709 7 13338
12248 -7.5048700038173255 3.0809492752948597 33.348209009466089 5 3 8 1.4842491628267644 13 9465 19 10482 3 11729 5 11566 7 12740 9 7717
12249 -2.2340605388217294 3.1198988125496405 29.386708627533338 46 45 41 1.6787753449565521 13 10308 15 9916 17 10061 3 10853 5 10713
12250 -2.3890062225977475 3.3494731513683829 28.291131409314634 77 80 79 1.1012253330901223 13 9572 15 9248 19 10562 3 10902 7 10413
12251 -1.0782453996047014 3.8260807725399979 28.990929595023402 99 110 116 0.61483122960240266 13 8552 17 10152 19 10613
12252 -3.2415148980913497 4.011049292699175 27.953111110238726 41 39 42 0.38312821904974625 1 9830 13 9652 19 10664 5 10855
12253 -4.9331452847745982 3.9321386059353047 27.287565551890776 25 25 25 0.79167923881234936 13 9654 19 10670 3 11883 5 11677 7 12862 9 7868 11 7535
12254 -6.6190625768249554 3.9352217193300341 26.394150111442482 52 53 55 0.65057429819275336 13 9687 15 9358 19 10691 1 9870
12255 -1.7665498459242224 4.1166423505211629 27.056918316307538 54 40 39 1.2278239064571195 15 9344 19 10694 13 10426 3 11044 5 10892
12256 -6.3165960334156015 3.9321452940521406 25.970644223943509 12 14 13 0.5076805761005585 13 10429 19 10700 3 9907
12257 0.83192535081661745 3.989873096248004 24.710954312038083 126 117 107 1.7035939477577287 15 9375 17 11017 19 10717
12258 -4.6928785150787498 4.4035021770430918 24.157367796061742 134 127 109 1.3571085740828996 15 9442 17 10320 19 10810 5 10998
12259 -4.758515054428563 4.493413185647313 24.23813217739167 61 58 39 0.52014594015246141 15 8534 17 9324 19 10817
12261 -2.630711129675483 -5.1315131498989368 35.997982032909327 208 216 219 1.0955152605757972 13 9944 15 9547 17 10479 19 10989
12262 10.827583977793584 -3.9653177014183414 45.092205210062119 210 213 219 0.65127199784259382 1 9257 19 11012 3 11392 5 11221 7 12380 9 7364 11 6959
12263 2.3207217693577524 -3.9767028951408787 43.995105478658424 127 132 138 0.279974156979657 1 10180 19 11013 3 11391 7 12381
12265 2.0412276471030255 -2.9355515710595914 44.028004512626708 203 210 216 1.2760808575746632 1 10866 13 9994 19 11051 13 10586 3 12122 7 12421 11 6998 11 7845
12266 -2.2460553069692031 -2.2137707618297719 35.275642364417344 135 119 104 0.41996283530977074 13 9998 17 10535 19 11059 3 11432
12267 -2.2460553069692031 -2.2137707618297719 35.275642364417344 135 119 104 0.41996283530977074 13 9999 17 10534 19 11060 3 11431
12268 -1.3593416813471122 -0.56059021865600389 35.798755635755278 139 125 112 1.0612381424781885 13 10060 15 9674 17 10607 19 11129 3 11500 5 11324 7 12500 9 8323 11 7896
12269 9.4628667272273805 -0.30462050871161656 45.505101884526027 109 91 79 1.3923003380120662 1 10286 13 10069 15 9677 19 11132 3 11505 5 11328 7 12504 9 7468
12270 11.48567993564877 1.4085493399888345 43.82731219228895 127 113 100 0.52093764257137543 1 10343 15 9726 19 11191 7 12559
12271 12.348754565964857 3.004962989768877 44.167032735255468 141 122 108 0.88290055792729893 1 9577 19 11256 12 8391 5 10564 7 11603
12272 4.320568155733441 2.5237650073636884 35.239240228977302 121 104 88 1.4262194549589329 17 10763 18 9940 19 11276 16 9558
12273 -8.0789391130532415 2.2425249593087946 33.247302551461921 13 7 17 1.1567186334044843 1 9566 13 10209 15 9837 19 11283 7 12661 9 7624
12274 -5.9982374321910568 2.3490506053655227 33.985492168951893 109 105 104 0.44569238962846613 6 9510 19 11286 5 11489
12275 -5.9982374321910568 2.3490506053655227 33.985492168951893 109 105 104 0.44569238962846613 6 9509 19 11287 5 11490
12276 -7.5405641792554245 2.5980966844851796 32.874126475114501 104 87 80 1.8604958613320435 13 10233 17 9972 19 11306 15 9121 3 11681 9 7667
12277 -6.5283836330573521 2.6790605290167613 33.70922973149856 83 70 67 0.73985148342830431 13 10235 15 9863 17 10790 19 11309 3 11678 5 11515 7 12688 9 7669
12278 -6.1739163807192998 2.2730973593796553 28.533411236979262 0 0 0 0.36841251241852746 4 9706 13 10236
12279 -5.7278583749673597 2.7711835053553622 34.190490600239379 84 72 67 0.32670147966966651 1 10468 17 10809 19 11325 3 10751 7 12708 9 7681
12280 -5.5942907466854974 3.137145549933841 34.329071530454954 98 81 71 0.22209468708559674 1 10486 19 11350 3 11720
12281 7.3527307252841014 3.3864530966024242 34.931411423981054 95 77 65 0.77857454740625709 13 10294 17 10022 19 11357 15 9888
12282 7.9694646710175316 3.6888098044557061 34.546679309120918 102 88 75 0.98399108328832841 13 10310 15 9901 19 11380
12283 1.397360851004332 3.5138838020874865 29.865587003996662 8 10 9 0.42192536307989914 1 10540 13 10332 15 9937 19 11408
12284 -6.1828192282088432 3.055460209762388 26.422288034527377 13 12 10 1.4448193198168835 19 11413 3 11793 5 11617 7 12800 9 7776
12285 -6.0326256704562473 2.9344507032955596 24.626193553900826 8 7 4 1.8062282245495003 15 10469 19 11427
12286 -6.4762441173666287 3.0980375214945113 25.579044746456383 99 99 101 1.4595286926535389 1 10563 19 11431 12 9631
12287 7.5974940875107029 4.269473494639759 33.599879423796203 3 3 1 0.14461914581593938 13 10362 19 11432
12288 -4.6804189706941077 3.3202879855637262 26.505726666186952 8 9 10 1.2169062485074673 15 9977 17 10911 19 11440 7 12820 9 8576
12289 -0.95276675769378139 4.0186705265274725 28.492832125139376 10 4 4 0.98686037743777055 13 10392 19 11471 3 11867
12290 1.4080582634448158 4.3273728142007393 30.454454655596226 82 76 76 0.64170304753160967 13 10395 17 10953 19 11474
12291 -3.677473359653606 4.2081161641422939 24.29768613784271 154 146 136 1.2044874815233484 15 10086 17 11048 19 11581 5 11738
12292 -5.5359725799995756 4.4338695359529474 23.507277452596234 70 68 48 1.3550797519318045 1 10735 15 10116 19 11606
12293 1.9138258789795493 -0.83122504865670666 40.477630732551503 116 106 99 1.8963159943860735 1 10268 13 10621 15 10227 17 11241 19 11778 3 12158 5 11968 9 8317
12294 -1.2707401437243095 -0.48734674851622167 36.56972529992796 43 28 21 0.79465547557214444 13 9189 15 9676 17 11250 19 11791 3 12619 5 12424 7 13672 9 8892
12295 1.5334435510855666 -0.4598863496188027 40.236167651375091 114 106 95 1.3554405203847555 1 11286 13 10627 15 10236 19 11793 3 12170 7 13674 11 8373
12296 9.772610888716537 0.019693524317272355 45.335894222931707 189 194 197 1.4362535369262335 1 10929 12 10647 19 11800 15 10647 13 11025 3 12180 5 11984 7 13684 9 8342 11 8387
12297 -7.318627575399546 1.170393319806976 33.343038011997244 105 87 75 0.72826357651794971 1 10968 13 10692 15 10319 17 11310 19 11860 3 12238 5 12045 7 13251 9 8390
12300 -1.2642131809001835 1.664943174784415 32.435826248820433 66 47 35 0.79560247357656311 13 10159 17 11333 19 11883 1 9506 3 12265 5 12071
12302 -3.4920997774543623 2.1606983036415524 31.630131354238294 105 86 72 1.3336738436504596 13 11102 17 11701 19 11913 9 7621
12303 10.55712141946475 3.2670020583155157 42.594759158323754 128 111 95 1.7139732365970168 1 10440 11 7311
12305 -3.2594452379551524 2.4927391023575467 30.427092495570093 108 85 72 1.4063268005029961 13 10255 19 11939
12306 -0.1652798719207795 3.1016142956808062 35.703516184945805 102 80 66 1.0911799252968539 13 10768 15 10400 17 11401 19 11942 1 11402 3 12332
12307 -3.2149863877114666 3.166607472011044 29.212374698909315 116 123 131 1.2342140057720699 13 11154 17 11749 19 11959 3 12384 5 12549 7 13803
12308 -3.2409235933694651 3.1825426897853917 29.371436349066801 116 123 131 1.4179867677159248 13 11155 17 11750 19 11960 3 12385
12309 -0.99297253389102458 3.2277192222492568 27.366045721041917 23 25 20 0.43873275397407507 13 10809 17 11758 19 11977 3 12399
12310 -5.2342163090191516 3.2109023487949964 24.073133767147425 34 33 29 0.7150525669712563 15 10486 19 11999 3 12425 5 12216
12311 -4.4174428580590517 3.9656898644962113 27.349057173969722 45 45 43 0.51990343055586341 13 10854 17 11464 19 12014 3 12441 5 12241
12312 -5.4196561948378665 4.1120463293838512 23.793701240088911 22 18 6 0.93806495695354586 1 11172 13 10899 19 12051 3 12486 5 12284
12315 -4.5034394836243923 -0.58213517522134073 42.303540484202109 101 82 75 0.71940721860366919 1 11283 15 10643 19 12194 5 11977 7 13679 9 8893
12316 8.3590978039861188 -0.4800861750885051 51.536408665977703 195 199 201 0.68460176549268004 1 11290 13 11021 19 12197 3 12622 9 8896 11 8378
12317 -1.2293079207570645 -0.11983065618378785 36.772161253346816 88 75 59 1.0204351700911916 13 11023 15 10648 19 12201
12318 -7.5638416500537939 0.53654755850923186 33.745600531384135 119 96 88 1.1896209356891971 1 11316 13 11045 15 10669 17 11645 19 12218 3 12643 5 12448 7 13702 9 8911
12319 7.6401967952901009 0.95021149622973267 45.430937987946635 192 196 199 1.4173879388138317 2 10669 17 11646 19 12220 3 12645
12320 -1.8434598613526405 1.7209760025548815 32.511298074988126 65 48 32 1.206687014459346 13 11083 15 10704 17 11683 19 12257 3 12683 5 12488 9 8957
12321 2.826840873457686 2.2964858772887093 34.079954526099542 57 44 28 1.9924767941168628 15 10715 19 12268 3 12695 5 12498 7 13751 9 8971 1 11369
12322 3.0906955106236711 2.5349651521545966 29.655855095848558 24 30 20 1.5133178933254687 13 11125 19 12292 3 12719 5 12519
12323 -5.5353610265279594 3.373521233347855 34.189409984180671 96 79 71 1.1616458924115964 1 11415 17 11958 19 12312 3 12738 7 14063 9 9015
12324 -1.5076929115787414 2.882985642077676 27.221502559740863 64 60 57 1.7231793343170452 13 11146 15 10970 17 11962 19 12315 5 12762 19 12683
12325 -5.5135764218658574 3.1223513852838987 26.762446721482032 32 24 19 1.9288235563580118 13 10806 17 11759 19 12333 3 12760 15 10462 9 8551
12326 0.81551354788031571 4.0996648560785429 27.622459804094792 109 108 106 1.2045094201811954 13 11185 15 10801 17 11786 19 12358
12327 -3.4158559013095147 4.1430099078318738 27.813532623567973 105 104 108 1.048592825209604 1 11147 17 11792 19 12362
12329 -8.3620670810355939 1.7883858832665378 32.504657971162317 19 14 19 0.86873267031895518 13 11331 15 10931 19 12502
12331 5.5230074720328215 4.3276651625340987 33.951928498532823 82 79 72 1.7141330053212762 13 11383 15 10978 19 12541 5 12772
12333 -2.3827765849153457 4.7107674401591382 25.790542071413601 128 120 99 1.1138621992024829 15 11009 17 12000 19 12571 3 13031
12334 -1.931877321859309 4.5299310522937413 24.798801308442364 118 111 93 1.9575812866224056 15 11007 19 12572
12335 -2.795363266366238 4.6827630289651632 25.446898257155446 122 114 93 0.048650835656470694 15 11014 19 12575
12336 -4.8811309638641918 4.8225163337366093 26.045187973353428 125 119 103 0.58397525374466042 15 11016 17 12004 19 12576
12337 -4.8620822032085291 4.9381994243509277 25.226012330643442 112 113 95 1.4020365773769286 15 11021 19 12593
12338 -4.7847165817387669 4.9998424695737675 25.631813412862186 47 48 34 0.44166753271385772 15 10851 19 12594
12339 -1.5791612291635988 -4.8380802905470102 35.418662030482167 61 66 63 1.530861301039623 13 11442 15 11033 17 12055 19 12616 7 14155 9 9416 11 8912
12340 -2.7260540029750002 -2.8404427543490876 36.143993103807922 92 73 59 0.41039400144854454 13 11451 19 12622 5 12864 7 14159
12341 10.71877659190724 -1.7487036490874541 45.300471594434001 199 205 205 0.86164106030761189 12 11446 14 9950 19 12630 3 13074 5 12866 9 9423
12343 -8.1419053191415536 1.9937762178077247 32.869994011489268 106 86 75 0.55254279114627236 13 11489 19 12669 3 13116 5 12902 7 14204 9 9458
12344 -2.4847314517746679 3.561073119147304 29.786671971800228 112 115 115 1.3738962278939666 13 11595 15 11185 19 12690 3 13141 9 9480
12345 -2.4847314517746679 3.561073119147304 29.786671971800228 112 115 115 1.3738962278939666 13 11594 15 11184 19 12691 3 13142 9 9481
12347 -5.9630537456057997 -5.396676303882062 43.220983331300715 203 212 218 0.44422094861229805 12 11538 15 11141 19 12724 7 14282 9 9545 11 9022
12348 7.3131994141562222 -4.9408484233150087 52.013510243551401 23 47 50 0.72522603171483935 1 11877 13 11552 15 11145 17 12163 19 12726 3 13187 5 12980 7 14285 9 9549 11 9025 2 11129 4 10419
12349 7.3148763314778611 -4.9419000813704281 52.031107207598829 23 47 50 0.63770113741903456 1 11876 15 11144 17 12162 19 12727 13 11551 3 13186 5 12979 7 14284 9 9548 11 9024 2 11130 18 10703
12350 11.375372456534302 0.24309734780932557 44.102206291414973 132 116 101 0.8503801040342075 1 11890 13 11564 15 11154 17 12171 19 12734 3 13192 5 12988 7 14295 9 9560
12351 11.375372456534302 0.24309734780932557 44.102206291414973 132 116 101 0.8503801040342075 1 11891 13 11563 15 11155 17 12172 19 12735 3 13193 5 12989 7 14296 9 9561
12352 2.247579109621058 0.17315827528281413 41.295525142546992 182 170 144 0.97990132948401309 1 11969 13 11632 15 11220 17 12173 19 12736 3 13194 5 12990 7 14388 11 9038
12354 3.7426536264194068 2.132818302229774 38.822157472218699 140 126 113 1.1168149435020513 13 11577 15 11170 19 12747 5 13001 7 14306 9 9574
12355 -5.9779027585590514 3.6214431631595487 34.454693882516167 1 6 10 1.7516273728717155 13 11588 15 11181 17 12197 19 12754 3 13212 5 13010 9 9585 7 14318
12356 -4.8739982065468093 4.779380021126169 24.239749840573751 91 90 75 0.58682136648397076 15 11198 19 12775
12357 -2.5198699959888655 -3.8347349228902314 35.680278850688794 149 135 117 1.582150099383407 17 12234 19 12794 17 12284 3 13244 5 13049 7 14375 9 9634
12358 1.7068338430222407 -1.8883132391867761 42.722242096120873 85 86 88 2.2061441742415244 12 11617 16 10404 19 12796 2 11247 18 10833 7 14378
12359 11.270407926525627 0.7684023718887919 43.582973886551208 120 104 89 1.1321222256893353 12 11632 19 12808 3 13257 5 13065 7 14392 9 9650
12360 -1.0944491422411604 1.5096681082334475 36.376143421051061 36 41 45 0.93604655539882342 17 12182 19 12810 3 13261 5 13067 7 14395 9 9651 11 9127
12361 8.3628388247176204 -1.3514231918267028 51.728600740315073 195 203 206 0.56809145453791587 1 12011 19 12853
12363 12.98180078208299 2.7301584531019722 44.788293164401772 45 35 34 1.2529417913349796 1 12017 13 11691 17 12292 19 12860 3 13300 5 13115 7 14437
12364 7.5874462492804282 3.2465638575846283 38.25793683631192 106 87 72 0.32601942671452355 12 11680 19 12863
12365 12.998527717242492 3.8533312925662164 44.949386819478441 26 16 15 1.379753252041523 1 11988 13 11651 15 11237 19 12864 3 13304 5 13117 7 14438
12366 12.998527717242492 3.8533312925662164 44.949386819478441 26 16 15 1.379753252041523 1 11987 13 11650 15 11236 19 12865 3 13305 5 13118 7 14439
12367 -5.9974123092611231 4.2705742867184737 24.375390805050493 20 18 5 0.82293812232462749 16 10452 19 12876 18 10885
12368 10.226252354815468 0.22387617973567236 44.974535656054918 187 190 195 1.3250462484175778 1 12034 13 11708 15 11289 17 12309 19 12884 3 13326 5 13136 7 14460 9 9720 11 9197
12369 10.226252354815468 0.22387617973567236 44.974535656054918 187 190 195 1.3250462484175778 1 12035 13 11709 15 11290 17 12310 19 12885 3 13327 5 13137 7 14461 9 9721 11 9196
12370 2.2457799230017144 0.91564428773826378 39.27978291798523 99 85 76 1.2356935545111207 1 12036 13 11710 15 11291 17 12311 19 12886 3 13328 5 13138 7 14462 9 9723 11 9199
12372 6.3374861869718755 2.9035882054320061 35.626729286393811 113 94 79 1.1744653553017856 13 11717 17 12322 19 12895 5 13148
12374 1.1411553354699866 2.5431921840969505 31.147639839019863 122 105 89 0.44326794892673332 13 11737 15 11321 9 9751
12376 0.39298644874397487 2.1580799793515357 36.936849078464412 153 136 118 1.1211070908054579 13 6124 2 6198 18 5896 16 5789 6 5744 8 5512 10 6157 14 5490 1 6143 15 5848 17 6464 19 6782 4 2160 18 2135 12 1952 3 6907 5 6811 7 7292
12377 -1.352238594751207 -2.4849472161506565 36.1580678290713 113 113 111 0.65309963265462434 4 408 14 334 19 399 1 355 15 5092 17 5723 13 5293 3 361 5 365 7 358 9 180
12378 3.6046232998959629 1.3662602955857948 39.056605845295245 119 106 94 0.7699911531172956 1 1495 13 1577 17 1559 19 1570 2 1839 6 1848 8 1795 10 1909 5 1527 7 1486
12379 5.6755057668864426 0.52937073020182024 42.059042915870947 37 32 26 0.54775163617540179 4 1338 13 1221 2 1411 18 1288 10 1429 12 1194 1 1173 15 1185 19 1244 16 1341 6 1402 14 1165 17 1205 7 1159
12380 5.4485745207859066 0.27130073478030459 42.369016581752511 197 195 188 0.85623575157994447 1 8079 13 7945 17 8443 19 8858 16 7233 10 7785 3 9090 9 4115 11 4171
12381 -7.3855626769267166 -1.167355344429188 42.85207811395815 225 227 229 1.1711320018026479 1 7936 17 8339 19 6204 2 739 4 709 16 644 10 767 12 658 14 635 15 770 17 5908 3 6329 5 6244 5 8861 7 6743 7 9696 9 3986 11 549
12382 1.0017177052966491 2.4854100118355369 37.128842891367867 120 101 85 2.3451827755936621 16 2311 10 6230 12 2114 14 2063 17 2102 19 6865 4 8524 13 8207 2 9091 18 8673 1 8316 3 10676 5 9223 7 2115 7 10089
12383 -5.7525980728105131 1.9346317895401277 34.285784896313963 9 8 9 1.185430084222453 1 9524 15 9022 17 9890 19 10341 4 8489 12 8333 2 9049 14 7146 17 6452
12384 11.292294370151781 -5.4441505570036206 45.30125128072855 223 224 228 0.93448258534400952 1 7774 17 8169 19 5851 14 4814 15 96 17 5606 3 112 3 8790 13 115 5 5935 7 6406 9 38 9 3795
12385 7.1271164167137462 -2.5960343867833582 51.103066071086666 132 114 100 0.82980165757821678 4 7245 13 5366 6 7048 8 6849 19 6038 10 5385 15 442 3 8882 7 6597 11 3951
12386 -2.196511961900153 -1.6756544023337554 35.300274250768126 70 55 44 0.75264567142213434 2 5510 13 539 18 539 16 487 14 464 15 543 19 6081 2 7690 17 5808 3 508 5 535 7 511 11 382
12387 9.6305376699812655 0.61738868136300273 44.464271683101167 167 154 134 0.61882714710623921 4 5596 18 5615 16 5540 6 5422 8 5202 10 5814 12 6161 14 5255 15 5518 19 6472 1 1198 13 1253 17 1225 3 6592 5 6482 7 6968 9 714 11 875
12389 -5.682996087717 2.1892851666083022 34.227020298372494 113 95 81 1.5210741830477013 18 7661 6 8353 8 8092 17 8700 19 6864 13 2073 18 5936 14 2019 7 7374
12390 -0.36752866647918042 4.4995176427978443 25.802296699772263 8 5 0 0.54865371152813436 13 4172 12 4261 1 7211 15 4178 17 4271 19 7942 6 4798 8 4555 10 4857 3 4427
12391 0.33805660458592174 4.5795323259617273 26.580845200509088 9 1 0 1.9073838388399023 2 10553 18 10132 16 9724 1 11171 19 11572 4 8858 2 9445 18 9052 6 8005 8 7796 12 9794 14 8467 1 9944 15 9400 17 11044
12392 10.712891260864566 0.60438599048402064 44.664792516302285 40 33 28 0.99929404608373729 2 1450 15 1176 19 1242 4 1382
12393 4.4269793742235422 2.5142226975813902 35.081597976622014 18 9 1 2.2603110442700816 16 8363 6 8388 19 10399 18 8709 17 9948
12394 3.1892717232827232 2.4600237154222522 34.367806158489422 78 69 63 0.41074382424493022 12 2229 1 2150 14 5578 19 2214
12395 1.1740259486487226 1.3003797352327531 38.781444180284062 35 21 12 1.3872224576329799 1 8182 19 6640 2 6044 4 5711 16 5640 6 5542 8 1754 10 5943 12 6285 14 5372 6 7316 10 7893 11 4350
12396 -10.241706658180529 0.44682584527776825 39.819778273282147 196 194 199 1.0633519214579676 18 1214 7 1246
12397 -6.1291086732573188 1.5288941672546459 25.312892062603712 23 14 17 1.0021288315669259 12 6436 19 2089
12398 -5.5283239509874909 3.0262323688564665 34.330386534985571 44 29 21 0.65549631568744304 10 2952 14 2504 19 2683
12399 -5.4415317940496077 3.0264609775737235 34.286343782486966 48 31 23 0.59284736349647715 1 2475 4 2729 19 2685 3 2706 5 2671
12400 -1.1187063017305194 1.0648709697040248 36.239746142564883 150 134 119 1.6705911096621107 12 6257 19 6605 3 6714 14 1420 5 6615 9 839 11 4324
12401 -5.1548026257354298 4.0025747103781431 27.015740024690086 88 87 83 1.3900161302925824 15 3813 17 7365 19 7701
12404 -4.8762335916447794 4.443673791687579 24.211636885617594 43 38 19 2.0737795141537418 15 9444 17 9316 19 9737
12406 -8.5374568107419186 1.1570220734037455 32.662484410063279 44 43 41 0.29112276640198265 1 10970 13 10694 15 10328 19 11862
12407 11.103540644230039 -1.9307112517540257 44.228984648868497 152 135 119 2.0823905818472279 1 11584 17 11602 19 12171 3 12600
12408 6.5586977796634649 5.4727392518157334 32.74195746002453 30 25 21 1.6641420451705384 13 11204 19 12374
12409 3.3636218676315242 2.0051133878997298 39.357491541154417 124 108 93 2.130363123777288 14 9970 16 10213 5 12889 9 9444
12411 4.9261370029813776 -0.34792926947300545 46.117868982581896 188 193 197 1.6075636119431675 15 11314 16 10457 17 12340 19 12908 3 13341
12412 -6.5802472523738622 -6.2566227854810341 43.192803841463252 218 222 227 0.40227469887945855 13 41 15 41 3 47 7 47
12414 -6.0738288324477212 -5.8784698663760135 43.210727767509788 214 217 224 0.38882485486073542 1 63 3 68 7 71
12415 -2.0718495698165311 -4.831883185608234 35.543954378822349 37 21 14 0.40598130799595411 15 70 19 81 3 70 7 66
12416 -1.378814936425355 -4.7896353968917342 36.340719845670534 79 65 74 0.82117575398038201 12 80 13 87 3 87 1 91 7 81
12417 -1.4667706278723855 -4.7072924628947579 36.126962741579469 129 111 97 1.0336579152623031 15 90 19 96 3 92 5 79 7 83
12418 -1.6652269375290401 -4.5975861403038074 35.42616377745086 151 135 120 0.55849965700453796 15 94 17 91 3 99
12419 2.6019309567700435 -5.3405330205387918 44.226976558550383 207 212 215 0.26617574921652593 13 113 17 113 19 117 3 119 7 114
12420 -5.8984444142624932 -4.4554953128303332 43.0359825690755 210 210 218 0.42443765991648075 13 193 3 189 7 6456
12422 11.760226713890706 -3.8300468423057863 44.387118788442059 61 51 41 0.45876196412649056 12 247 14 260 3 253 5 225
12423 -1.9017341689950731 -3.1004143753338305 35.678507212617852 43 32 30 0.48125251439317324 15 268 17 277 3 270 13 296 5 268
12424 10.851427979745187 -3.6993369030086227 45.320815639702587 217 218 223 0.62603339269608183 1 300 13 5263 15 249 3 275 5 252
12425 11.518716661670979 -3.5966329060143774 44.290846992063557 162 146 131 0.40975848302140211 16 343 3 279 5 254
12426 -2.1095055312782733 -3.0449281919231486 35.612896930209843 126 107 92 0.78194074785764611 13 300 3 280 7 272
12427 -7.2300399983822583 -3.6730392141802479 42.990650509256156 73 70 77 0.096045355044752645 13 293 3 281 5 281
12428 -7.2300399983822583 -3.6730392141802479 42.990650509256156 73 70 77 0.096045355044752645 13 294 3 282 5 282
12429 -6.7290528494722368 -3.4119947287142138 42.317933347635616 90 72 58 0.20842008129727341 13 318 17 301 3 299
12430 -1.6584167029444838 -2.8274741315155585 35.7637195583332 128 109 95 1.3534591383730517 1 310 3 303 13 334 15 299
12431 -1.8629015479682112 -2.7712240632887823 36.418305814052928 26 21 27 0.27074178471422039 15 314 17 319 3 311
12432 12.070428325934536 -3.1562510263931691 44.551423440078779 87 77 65 0.48936237726542503 12 322 3 315 5 309
12433 -2.9044164368570975 -2.6047904297231379 36.09695891528866 211 215 219 0.69567419531555796 13 362 17 5715 3 338 5 6049 7 342 9 169 11 278
12434 11.054666076974589 -2.8749869010482376 44.461450897672954 111 97 84 0.68881228034272668 13 401 15 336 19 393 3 356 7 344
12435 12.290103794150129 -2.8706645899332934 45.04972512514734 113 102 94 0.843006018451678 13 406 19 396 3 365 5 349
12436 -5.9869547478660703 -2.7116483863652694 42.589389446811168 134 116 104 0.82636262011918937 1 374 13 403 17 378 19 433 3 392 5 401 7 390
12438 7.1236043704592298 -2.8377430905869816 51.094088427881118 133 116 100 0.39220023528055975 6 564 8 542 17 423 3 414
12439 12.020422679873052 -2.3124217040031363 44.508529394394579 141 125 112 1.0092808707826628 1 464 13 483 17 451 19 478 3 426 15 413 5 414 7 408 11 341
12440 11.327373501764489 -2.2756350652983444 44.281292078519556 32 21 20 0.69259081594524396 13 492 17 453 19 6032 3 432 15 424 1 470 5 422 7 6587 11 345
12441 2.0373294821264971 -2.2777823790737934 43.101951316437898 147 148 152 0.57083528143826001 13 475 17 446 3 443 5 453 7 431
12442 -4.2905944701537821 -2.2122936808618556 42.177691635830989 203 206 209 0.8267284090083945 13 477 19 516 3 461
12443 11.555370157666134 -2.1091875468267567 44.624319702681746 15 11 12 0.25561670973510142 13 528 15 458 3 469
12444 11.955968973932382 -2.1137575141859331 44.889973036612474 213 212 218 0.41865576562549006 1 505 19 6056 3 471 13 529 17 492
12445 3.2200290918628518 -2.1109130441920874 42.895754266800992 128 129 131 1.928063674725093 15 5163 18 555 3 479 17 5785 5 6118
12446 11.500374164737725 -2.0446181885045833 44.955796878576798 189 194 196 0.33038422795930339 1 529 3 490 5 482
12447 -4.3079606236849148 -1.9813962427943557 42.278587858457676 202 204 209 0.31011357154181873 13 531 15 540 19 581 3 517
12448 -4.2137459608337986 -1.9787012501141756 42.29879889743578 203 207 211 0.44662682864920428 13 533 17 512 3 518
12449 -1.9864620977789726 -1.5430126176256866 35.502726473267224 126 112 99 1.1030184285695297 12 524 14 513 3 548 5 568
12450 12.01372704126088 -1.7496393523944103 44.835295005453823 70 53 49 0.86536425483153223 13 611 15 5187 17 5846 19 6102 3 554 7 521
12451 -0.9197144369781487 -1.7447860930410102 41.515331916340074 40 24 21 0.34566449124374338 1 546 3 556 5 576
12453 10.897563046916822 -1.6603410487859838 44.718904678735548 120 98 84 0.34555148201086838 1 604 15 559 3 570 5 567
12454 -1.3347046506702454 -1.6328658245646788 41.108727648106374 67 50 43 0.85773513339244811 13 603 15 606 17 577 3 579 7 584
12455 1.99487744735209 -1.6073564485225393 42.751302887517539 116 114 115 0.62298670433944459 13 632 15 611 3 589 5 603
12456 -3.0629141998132683 -1.4058425374502024 36.231539487412661 101 90 84 0.58379676069313502 1 581 13 623 3 597
12457 10.771091671534478 -1.5154862590808178 44.928642957425645 210 216 216 0.52846568781228931 13 667 17 634 19 673 3 607
12458 10.774601948049431 -1.5181823175859508 44.944025490405096 210 216 216 0.34135701273329272 13 666 19 674 3 608
12459 6.347637826114549 -1.594702212103096 46.342148591668895 180 182 181 0.49819654569809685 13 655 15 614 17 628 19 678 3 618 5 616 7 603
12460 -0.93692353464377875 -1.5123295492567825 41.418704645605047 57 46 44 1.5117832814521133 13 644 3 621 5 6192
12461 -0.77750456605611662 -1.575538026733986 44.569734481365032 41 35 41 0.32803860281720859 13 650 17 618 19 697 3 631 15 644 1 605 5 643 7 622
12462 2.4470842639222177 -1.3626581956478616 42.601201877720101 46 42 43 0.25724843376367107 13 695 3 662 5 668
12463 -1.1139941469198573 -1.2352822594972719 40.999206585012608 152 144 138 0.20859655943185801 1 664 15 715 3 691 5 698
12464 2.0113174490740211 -1.1074728158163933 40.592935861954345 145 155 165 0.55662257669489335 13 732 15 727 17 698 19 762 3 709 1 685 5 712 7 688
12465 3.3296201740898468 -1.1435146438663299 42.653053520050321 64 48 40 0.94279433356485376 18 780 3 710 7 689
12466 -0.76584644208966424 -1.0899082267528306 44.341101149549729 145 148 153 0.21296331381502945 13 749 17 718 19 781 3 740 5 739 7 719
12467 1.6446015436380061 -0.908732131292185 40.156976779047426 74 56 45 0.47908757334614083 13 773 17 743 3 763 7 6744
12468 1.041920792670552 -0.93463963764323343 43.577894712015357 76 58 51 0.35119511309064327 13 779 15 791 17 756 19 801 3 769 5 762 7 747
12469 4.0280931427101896 -0.86403199260701224 43.985611368127394 58 48 47 0.51310281086172371 13 797 17 773 19 815 3 786 5 768
12470 10.650294541258447 -0.6597486027814593 44.953453837851086 124 107 97 0.32660763173259416 13 865 15 804 19 856 3 826
12471 -2.9275616128958553 -0.63983718660722644 36.022324472583122 158 139 122 1.4735550652487617 15 866 17 810 19 878 3 843
12472 -5.6166632899404316 -0.71118279410140162 42.632397125486349 135 119 106 1.5780737087906322 13 833 3 852 9 464
12473 -0.94476287980591978 -0.64413738854352887 40.524384005637735 189 188 183 1.3693525167326588 16 5270 3 855 7 824
12474 -0.94476287980591978 -0.64413738854352887 40.524384005637735 189 188 183 1.3693525167326588 16 5271 3 856 7 825
12475 0.96138180275848928 -0.65204531152877543 43.629222799026572 211 214 221 0.8040310446875365 1 808 3 862 7 827
12477 12.426252196274605 -0.37651643987919797 44.693258736861658 104 96 85 0.440304979146177 13 948 17 909 19 934 3 913 7 845
12478 -6.5198766483867532 -0.50643606852294853 41.928373691990394 155 139 124 0.49585912278701688 8 905 3 924 7 904
12479 12.288838247003783 -0.25902380729226493 44.526274433751603 93 80 71 1.1181495530083456 13 966 19 969 3 943 7 886
12480 -0.97002221625221197 -0.038442552715352928 37.462211724143245 189 173 158 0.25985405748935742 15 1009 17 6040 3 1013
12481 -0.53503487513035719 0.03025412645257116 40.26529007085314 65 53 41 0.5854265490530508 2 1125 16 1019 18 1061 3 1034
12482 9.6954450643757859 0.15843591482396638 45.229587117956548 29 20 21 0.50549753512029161 13 5690 15 987 17 1033 19 1053 3 1039 5 1011 7 979 9 600 11 766
12483 9.7769304752299266 0.21863708460819095 45.322929576633726 201 201 206 0.42849947812931777 13 1083 15 1004 17 1061 19 6371 3 1057 5 1029 7 994 9 608
12484 1.5268012973606209 0.11810539620458188 39.507992179312303 178 162 146 0.45356541331114059 13 1062 19 1091 3 1063
12485 9.3294628692909836 0.23101070901547863 45.205742482271418 84 76 73 0.43707113901442207 1 1059 15 1011 3 1068 5 1034
12487 9.3621621589300492 0.28280508172077667 44.666873959143103 26 8 4 0.37230230275956733 10 1317 3 1087 5 1060
12488 7.0795580315765312 0.27723907285091653 45.012053892598153 59 61 74 0.55425438252556847 13 1111 15 1052 17 1097 3 1089 1 1078 7 1041
12489 6.1535111778802714 0.25569341228989823 42.386809096584685 56 45 31 0.31552863549501281 13 1115 19 1129 3 1093
12490 3.0296417281776034 0.25128872575761896 42.268515232956396 54 41 35 0.48270646090969122 13 1100 17 1105 3 1107 5 1098 7 1069 11 812
12491 0.98447308120552957 0.23183842146845468 40.058203915660975 195 195 197 0.4883966246078566 13 1104 17 1101 19 1169 3 1115 5 1112 7 1080
12492 0.98447308120552957 0.23183842146845468 40.058203915660975 195 195 197 0.4883966246078566 13 1105 17 1102 19 1168 3 1116 5 1113 7 1081
12493 -1.1393458730612283 0.18654560402663256 36.266310430107957 35 22 18 0.27895707986298102 13 1096 7 1083
12494 1.0431849334792427 0.24546975082286446 39.939648342118709 72 67 56 0.29686522779893648 1 1072 15 1107 3 1125
12495 0.87295333752629245 0.26139776272152238 40.129821320460188 171 158 140 0.78625431751158048 13 1121 15 5484 3 1138 1 5760 5 6454 9 651
12496 -4.8157039947952365 0.20651670891172669 39.057327522762797 139 124 112 0.13839269556112063 13 1090 17 1108 3 1142
12497 -6.7664880089175563 0.2102924255568453 41.968226482730415 142 125 109 0.74035610682486352 1 1034 15 1177 3 1148
12498 6.0280164925320179 0.4094302710557492 42.175177614526248 199 200 196 0.31707702487881978 13 1183 15 1137 3 1171
12499 3.6391906604541413 0.39597628076572927 42.665174688428095 64 50 41 0.25119698716856631 2 5858 18 5557 3 1174 11 850
12500 3.0817124897782069 0.40274436311785372 42.213147406714242 109 93 80 0.4916438000259003 13 1177 19 1218 3 1184
12501 -2.6419799467822975 0.31176658385298495 35.381658624466482 146 128 114 0.90611641996429215 13 1174 3 1198 7 1158
12502 11.946550342059684 0.60874818929924202 44.391835296614133 44 30 29 1.5480340843442184 13 1250 3 1225 5 1165 7 1140
12503 5.3297844096297702 0.54725009790178047 42.034047407149636 169 156 133 0.58048162274319559 13 1237 17 1213 3 1230
12504 11.377372717577385 0.63808142304479376 43.777628017888176 115 99 84 1.008262371743385 1 1217 13 1273 17 1232 3 1234
12505 -2.6736240971584313 0.42176542278622653 35.231963453999121 97 75 61 0.86918978936904889 13 1227 17 1215 3 1250
12506 -2.6736240971584313 0.42176542278622653 35.231963453999121 97 75 61 0.86918978936904889 13 1228 17 1216 3 1251
12507 6.0032721425701441 0.60803572278534168 41.850410323098146 59 62 74 0.12773583240784889 13 1260 17 1241 3 1258
12508 -7.0215986519081675 0.49218736882302583 42.369181227174906 144 128 113 0.92170517208811265 1 5811 15 5561 3 1273 13 5774
12509 3.9771524995318344 0.6352235189058254 40.496739244405958 186 169 153 1.1008419654385759 13 1291 17 1273 19 1304 3 1286 7 1220
12510 9.0417657940366656 0.79325691828909717 44.414735571664089 195 195 193 1.9906115394053387 6 1514 15 1263 3 1305
12512 2.0788807428986034 0.66171213236781945 39.445215259461882 57 43 34 0.39464017265106183 12 1279 3 1314 5 1279
12513 2.0748945532466312 0.65964481806444064 39.583343182545505 57 43 34 0.49983205352870552 13 1306 15 1298 3 1315
12514 -6.6453680066630882 0.5394837626037231 35.469429218485999 199 198 202 0.37068908027559072 1 1214 13 1285 3 1332
12516 -4.4513015857618132 0.651374460497261 38.295373186296871 189 171 155 0.55416021844212515 1 1241 13 1308 3 1347
12517 0.88741755215078755 0.74744304164822928 39.848212645519105 50 33 23 0.22533335891379958 13 1342 19 1366 3 1349 5 1308
12518 -1.4542784115574616 0.64439903993657732 35.435788099184492 115 99 86 0.52111038208073213 13 5829 15 1345 17 6195 3 1354
12519 -0.73621382926674273 0.74059399592628594 38.13327084158216 85 69 53 0.30053175308012714 15 1348 17 1325 19 1380 3 1368 5 1316
12520 -6.4366679463665255 0.84714113476104536 41.70204560692499 35 18 10 0.68775896454165186 13 1356 15 1391 3 1385 5 1362 7 1318
12521 -6.9066618751799078 0.86548517706403061 41.931504638802345 60 42 30 0.7112000012537627 13 5841 15 5605 19 6541 3 1388 1 1273 5 6568 7 7054 9 783
12522 -6.4926619926416773 0.89031214565331562 41.698677192662224 150 134 119 0.8876810254942793 13 1370 15 1402 17 1358 19 6548 3 1394 1 1284 5 1376 7 1341 11 4293
12523 5.0207060209881753 1.0249013194699796 41.169022003993156 92 73 59 0.65578296523838253 13 1422 3 1400 5 1347 7 1314 8 5263 6 5476 11 974
